ply
format ascii 1.0
element vertex 100
property float x
property float y
property float z
end_header
0.2451796053634474 0.09048613392580925 0.6643342607107433
0.24954432442709978 0.11035944989213008 0.7083072395154076
0.25350292709920735 0.13172421536161 0.7540689567696361
0.2569883308845075 0.1547630557060553 0.8018026915384764
0.25991779033419554 0.17968795252211744 0.8517111321983878
0.2621891181679164 0.20674604853960304 0.9040188102144066
0.2636758407571091 0.23622681695646056 0.9589747404848616
0.26422094960626213 0.2684709616934562 1.0168552163608666
0.26362879000279527 0.3038815237886702 1.0779666506811063
0.26165446040775076 0.34293781164679815 1.1426482597444578
0.25798986163494375 0.38621295889996393 1.2112742315142502
0.2522452050642415 0.4343961544761038 1.2842547639101558
0.24392432368287714 0.48832089621120456 1.362034940176442
0.23239147192714985 0.549000998431642 1.4450897205300568
0.21682637254488699 0.6176765262499091 1.5339121967600664
0.19616297052598425 0.6958722853579309 1.6289903850282275
0.1690055698798715 0.7854718215031504 1.7307647294106843
0.13351366492494238 0.88880972220537 1.8395533342726644
0.08724387718323856 1.0087835481693528 1.9554233896098125
0.026934463291013955 1.148982160458698 2.0779731563839587
-0.05178341187021729 1.3138157347473252 2.2059660619012207
-0.15475823289585114 1.5086064934651278 2.336722962118311
-0.2897613546998243 1.7395426351971954 2.4651280355052436
-0.4669174775180872 2.0132830309342054 2.582046196871858
-0.6988639540945808 2.3357850333379115 2.671931590899818
-1.0000000000000016 2.7095820622027413 2.70958206220274
-1.3835031682119794 3.1283715512506416 2.6567585165510126
-1.8540031146119458 3.568024414607001 2.461451023846785
-2.39429010001559 3.9757848773997333 2.0662476347098555
-2.9497030103061155 4.266731730311864 1.4342651447122556
-3.425799317482379 4.344495618734398 0.5904163430511533
-3.719781361184932 4.1520115729444775 -0.3539895357845283
-3.7766676106400427 3.716881319812575 -1.2371077650218998
-3.6192977985519383 3.139878619127822 -1.9286004744626657
-3.3227522379269363 2.53519126312864 -2.382130544387016
-2.966806452497357 1.9818236766511632 -2.6229640638890435
-2.6079800523997148 1.5144021334958806 -2.706577616856084
-2.276418074315057 1.1371082898664546 -2.6877075868462765
-1.9836977436259104 0.8396969036791131 -2.608236554849356
-1.7311556964020478 0.6076970615027132 -2.496390265000548
-1.5154886882691017 0.42720879843128556 -2.369831553285673
-1.331820635427361 0.28656038231572795 -2.2390610581155483
-1.175162494349935 0.1765285050141957 -2.1100369019317506
-1.0410081670034714 0.09003079881071994 -1.9859434695727038
-0.9255119370293018 0.02169586974558307 -1.8683137635768112
-0.8254821718235519 -0.0325359806284263 -1.7577192581843848
-0.7383056509208124 -0.07573802603161531 -1.6541865761035646
-0.6618545966393455 -0.11024730331762318 -1.5574463685705495
-0.5943981004491958 -0.13785188542243812 -1.4670805047252387
-0.5345255131666469 -0.1599293635177755 -1.3826080220781884
-0.4810831678389484 -0.1775488458348646 -1.3035343220040836
-0.43312333771742156 -0.1915461447407178 -1.2293783736121333
-0.38986355584372356 -0.2025794004796812 -1.1596868257167223
-0.3506543674908438 -0.21117044973511123 -1.0940403974226907
-0.3149538035424336 -0.2177357849373328 -1.0320557906421348
-0.28230715260044814 -0.22260988054137906 -0.9733850817005563
-0.25233088979386226 -0.226062891255571 -0.9177137687759864
-0.22469986189790978 -0.22831417458007996 -0.8647581769233059
-0.19913702571300065 -0.22954269454321963 -0.8142626328185345
-0.17540519321168316 -0.2298950800141477 -0.7659966448159706
-0.1533003592031675 -0.22949190698067082 -0.7197522166488282
-0.13264628190041391 -0.22843262669123182 -0.6753413584301486
-0.11329005974635378 -0.226799454322086 -0.6325938201629312
-0.09509850406027875 -0.22466045438541365 -0.5913550506637136
-0.07795515038975258 -0.22207200134782282 -0.5514843724019429
-0.061757784918330234 -0.21908075114548367 -0.5128533563844819
-0.04641638820462327 -0.21572522737917832 -0.4753443784621932
-0.03185141868350472 -0.21203710202882814 -0.43884933780744306
-0.017992374091502946 -0.20804223244108558 -0.4032685188811637
-0.004776581308768417 -0.20376150259457582 -0.3685095794063107
0.007851825182398351 -0.19921150612814822 -0.3344866483452785
0.019942768344346266 -0.19440510051700113 -0.3011195194364949
0.03154096315606274 -0.18935185550189676 -0.2683329273615359
0.04268654185646886 -0.1840584139743667 -0.23605589502448382
0.05341558709184709 -0.1785287796646165 -0.204221141698562
0.06376058704022323 -0.17276454291970525 -0.17276454291970544
0.07375082401766778 -0.16676505340883568 -0.1416246339824587
0.08341270596978231 -0.16052754660604326 -0.11074214972617549
0.09277004851679234 -0.15404722926695488 -0.08005959399760801
0.10184431377376786 -0.1473173277486253 -0.04952083274908905
0.11065481094511768 -0.1403291018506719 -0.019070705188664373
0.1192188626428516 -0.13307182582599855 0.011345352252170851
0.1275519399580835 -0.12553273727356418 0.04178167411958436
0.13566776848793882 -0.11769695374348421 0.07229273114243716
0.14357840675270817 -0.10954735601968764 0.10293349721838917
0.151294297700439 -0.10106443616254282 0.13375982299267852
0.15882429325855846 -0.09222610745830649 0.1648288209685725
0.1661756511240851 -0.08300747239674264 0.19619926731152343
0.1733540021522942 -0.07338054364148854 0.2279320258320135
0.18036328577047647 -0.06331391162186807 0.26009050006115714
0.1872056497636527 -0.05277235080284334 0.2927411198759631
0.1938813094976015 -0.041716354812056586 0.32595386979660956
0.20038836009208175 -0.030101588332998593 0.35980286687567864
0.2067225331451404 -0.017878240902571417 0.39436699703792966
0.21287688722318837 -0.004990264341553568 0.42973061981574373
0.21884141832075177 0.008625528679138347 0.46598435266145594
0.22460257265967368 0.023040532703021106 0.5032259473953383
0.23014263927507111 0.038335618559287576 0.541561272841802
0.23543899346872704 0.05460264615095162 0.5811054192620607
0.2404631539188312 0.07194627423467045 0.6219839417070938
